ply
format ascii 1.0
comment VCGLIB generated
element vertex 1554
property float x
property float y
property float z
element face 0
property list uchar int vertex_indices
end_header
0.02964157 -3.803435 0.2960924 
3.422223 -0.9838169 0.5981826 
10.15934 -0.2725695 0.508513 
-1.026934 0.1339837 1.099667 
2.415594 1.207463 -0.2275173 
3.202955 1.161423 -0.1472954 
7.291897 0.6532768 0.54992 
-0.02700019 -2.997271 0.2485646 
-1.114388 0.4381807 -1.358463 
-0.1937121 -0.6517889 0.5717681 
-1.115138 -0.3119737 -0.1874602 
6.290442 0.1959806 -0.9122823 
-0.3806874 1.493716 0.8515598 
0.0400137 -8.995074 0.3047941 
-2.456258 -1.149721 1.28171 
0.569841 7.454391 0.7162197 
5.694757 0.9264289 0.3147592 
0.3948907 -7.115221 0.602572 
10.52001 -0.5211284 0.3630075 
7.279243 -0.6977814 0.4935696 
-1.060284 1.376501 1.512014 
1.780248 1.191501 -0.743075 
5.217937 0.9843438 0.2531759 
0.4570429 5.878856 0.6215703 
8.429164 0.678615 0.36439 
1.9803 -1.373572 -0.2890416 
2.72565 -0.9389527 0.7457752 
1.18211 1.33421 1.105565 
-0.318499 -3.880801 -0.02918985 
0.223543 3.732344 0.4256399 
3.711718 -0.9798009 -0.5671209 
6.402394 0.9209867 0.0830261 
-1.085416 1.001223 -0.9670543 
4.272806 0.6876607 -0.8426422 
8.649452 0.6831391 -0.3172123 
-0.5447018 6.669094 -0.185836 
-0.8049882 0.8235942 -1.60494 
0.4123906 -8.169798 0.5840985 
-0.7291594 0.2578598 -0.08675987 
3.153061 -1.048429 0.5247014 
5.125862 -0.1370196 1.014612 
-1.062459 -0.0004575027 -0.5310874 
10.15934 0.1619033 1.073529 
-0.3806874 -1.177166 1.56426 
-1.064221 0.2045778 -0.2721564 
0.1393206 1.531432 -1.345853 
-0.5917367 8.003431 -0.25846 
-0.6663389 -8.180546 -0.3210633 
1.162715 -1.581434 0.1746335 
-0.9466656 0.5491682 -1.536621 
4.238356 -1.034167 0.3430886 
9.700972 0.1162105 -0.6628193 
-1.062459 -0.2514328 -0.4383894 
6.441143 0.1933957 0.9010725 
1.147094 -0.1515839 1.520696 
-1.132858 -0.9358162 0.195153 
-1.662652 0.9282486 1.069447 
3.135635 -1.148502 -0.2423114 
5.552296 -0.9322184 -0.3315197 
6.142503 -0.8768198 -0.3546165 
2.732031 1.155236 0.3440009 
0.8382933 -1.608439 1.263264 
-0.7371045 1.129882 -1.463436 
0.7910881 -9.376478 0.9064604 
-0.7019585 4.129597 -0.3509482 
-0.5857159 0.5074151 1.659923 
2.990499 -0.8842888 -0.7885653 
10.28028 0.5188669 0.3279596 
0.7164724 7.303736 0.8392581 
3.518419 0.04545701 -1.143976 
-1.788371 0.09398997 1.101959 
0.2238406 -0.9833362 -1.7855 
0.2187336 -0.5329069 1.917045 
6.427368 -0.3647933 0.8487217 
10.36123 -0.4053797 1.22438 
1.463646 -1.424078 -0.1482268 
3.113455 -1.026519 0.575964 
-0.5387061 -1.212761 -1.687623 
10.28985 -0.5149664 1.276772 
7.071028 0.8705946 0.07179682 
1.219938 0.5311971 1.578209 
7.278979 0.1049988 0.8525175 
5.599858 0.7190442 -0.6750244 
-0.701238 -1.372836 -1.515945 
-1.026934 0.4402571 0.9694885 
0.2353842 -0.5644365 1.7855 
0.2059605 0.2714191 1.7855 
0.3578947 4.849306 0.5383748 
10.18435 -0.1761465 -0.4824249 
4.662961 0.8974353 0.5590726 
-0.2320125 1.7285 0.4924779 
-0.2445227 8.573268 0.03288734 
-0.3806872 0.5495828 -1.39803 
-0.3806873 -1.673184 -0.1846923 
-0.5563703 -0.4693008 -1.619355 
-0.0949119 1.7285 -1.091512 
2.132809 1.260342 0.1571462 
-0.02514614 1.628871 -1.294394 
0.4219545 -0.2195173 1.7855 
0.7668836 -7.075659 0.9147111 
0.1655338 -1.728499 -0.8415501 
10.51091 -0.5211286 0.9520438 
10.18435 -0.5502465 -0.2595859 
9.078081 0.548077 0.4662883 
8.473929 0.6471632 0.4109018 
9.722856 0.003251544 -0.672312 
3.963424 1.111859 0.01630944 
-1.61714 -1.322707 1.062406 
1.002479 1.662772 0.7436869 
-1.033667 0.09187075 0.3112928 
2.649086 0.6717837 -1.007384 
-0.7423484 -8.48551 -0.3516858 
-1.064249 -1.323972 0.4251903 
-1.132858 0.871473 0.2118363 
6.825378 0.8404424 0.2996827 
10.66999 -0.4141086 -0.1076457 
0.3024227 2.746423 0.4935028 
-0.06811839 -1.542668 -1.333803 
-1.927632 -1.273204 1.137975 
-2.35855 -0.6604667 1.249419 
0.6124879 1.27872 1.616883 
-1.132858 0.2272353 0.8087082 
-1.132858 -1.136395 -0.6765226 
0.3206059 1.139862 1.765806 
1.293564 1.411567 -0.8049552 
4.756459 -0.9703588 -0.4063979 
5.010747 0.07059807 -1.028215 
8.108237 -0.3406549 -0.7176231 
10.15934 -0.2921738 -0.06515566 
-0.7464625 0.3683051 1.765549 
0.05706719 -9.038957 0.3191036 
9.639394 -0.6561857 -0.1736411 
0.1560722 0.7705615 1.7855 
9.271154 0.1692918 -0.6856994 
-0.3670013 9.079851 -0.03672692 
6.427033 0.5908368 0.7089268 
-0.7768434 5.4898 -0.4137837 
-0.5549873 6.044021 -0.2276241 
3.304712 0.9300063 -0.6975432 
-0.6530725 1.360602 0.2866589 
-0.7087455 3.331189 -0.3566435 
-0.3806873 0.3831496 -1.640599 
-0.3178674 -8.237175 0.004496276 
-0.3297273 0.08724473 1.7855 
-0.2241449 -0.8191769 1.7855 
2.024288 -1.058016 -0.8629547 
4.9481 -0.06326638 1.033486 
10.66999 0.2308338 0.2250133 
-1.132858 0.5780882 -0.80246 
0.3619456 5.09987 0.541774 
-1.009442 -0.4582089 1.631816 
-1.056236 -0.3683665 0.4523803 
-0.2945255 -5.152404 -0.009073943 
-0.9068178 -0.7014148 -1.403229 
-1.059449 0.05845353 -0.5804189 
-2.496607 0.3543169 1.245476 
2.488397 -1.223677 -0.03111764 
-0.7434539 3.863756 -0.385767 
-1.132858 -0.9319869 -0.1448127 
-1.11892 -0.9190066 1.732645 
-2.472111 0.7046836 1.278787 
9.460076 0.2633629 0.6404703 
0.3771482 1.7285 0.4855546 
-0.2529179 -8.655684 0.05899531 
9.544391 -0.6448819 -0.2303508 
8.19675 -0.1180586 -0.7794762 
-2.111661 1.266818 1.192592 
3.526447 -0.2440952 1.117744 
-0.7755139 4.664118 -0.3795109 
-2.586107 0.1117201 1.26862 
-1.026934 -0.7392329 0.9474347 
0.04301562 -8.406113 0.2741559 
2.361194 -1.203765 -0.2673809 
6.812878 -0.7444934 -0.4933669 
0.4223 -7.012527 0.5924138 
-1.132858 0.4264399 -0.7140239 
10.15934 -0.634212 -0.1454284 
2.721364 1.081882 0.5313414 
1.224137 1.192194 1.196448 
0.5023797 8.2877 0.659613 
1.203254 0.5860983 -1.587915 
-0.3279538 1.7285 0.7401287 
-0.6693018 3.28322 -0.2903887 
6.385832 -0.009387488 -0.9270796 
-0.9955832 0.5165906 0.2434314 
1.372491 -0.3168088 -1.486019 
-2.599953 -0.4135534 1.272202 
10.66999 0.4126868 0.1261676 
0.2290368 -7.086245 0.463404 
0.6393663 -3.511153 0.8077123 
-0.2350675 1.072113 1.7855 
0.7886432 -0.03818551 1.7855 
0.6998299 -0.03722351 1.7855 
5.805281 -0.09356515 0.9659549 
-0.0337828 -0.0511057 -1.7855 
-0.3330714 -6.321926 -0.008260667 
-0.469274 -1.150531 1.675589 
-1.132858 -0.004469275 0.7064172 
4.595737 0.7330089 -0.7700991 
-1.132858 -1.22621 -0.1125355 
5.125586 0.3972918 -0.9434459 
-1.132858 -0.2441869 0.157269 
5.571989 -0.6814102 -0.7162719 
-0.3981434 8.230872 -0.09601589 
-1.026934 0.2272723 1.010484 
4.96834 -1.028216 0.1200501 
0.005948581 1.573677 -1.300546 
2.478127 0.3112251 -1.185947 
6.390554 0.6079217 -0.6976457 
6.50518 -0.9083431 0.1317942 
8.635122 0.1039947 -0.7481696 
-0.3894181 4.21439 -0.08869552 
0.4117505 -8.261288 0.6167186 
-0.3806873 1.564984 -1.169111 
2.817785 -0.6206725 -1.026054 
7.720421 0.7668449 0.3040303 
3.453113 1.130043 0.2109465 
-0.9615121 -1.000955 1.630738 
-0.8299095 0.1258456 1.385119 
5.669063 -0.2215719 -0.9555339 
0.07162607 -5.138045 0.2981639 
0.9342784 1.327453 -1.475044 
0.5598143 -0.3799671 -1.7855 
-1.107313 -1.062955 0.8966621 
0.225079 8.581495 0.4600874 
0.6262923 -8.087975 0.7635835 
1.145265 -0.04316416 -1.435915 
8.873419 0.268141 0.6861205 
-0.03851765 -1.219131 1.680792 
-1.395842 1.219316 1.007469 
7.296795 -0.6632354 0.5398962 
-1.315206 0.4469136 0.9111215 
10.42075 0.518867 0.03291216 
9.900867 0.6872774 -0.03686679 
6.570051 -0.1889767 -0.8919227 
7.29944 -0.04337833 -0.8549914 
-0.8683758 -0.5026832 1.623615 
9.080822 0.718327 0.05022248 
10.22645 -0.5211282 0.1072733 
10.66999 0.4338971 0.1998906 
-0.3806876 -1.384724 0.9630867 
-0.7330117 -0.5866437 1.260957 
-0.9955831 -0.3040251 0.3905742 
5.416004 0.03024081 0.9998721 
8.85431 0.1406261 -0.7238308 
5.992749 -0.9534372 0.0658299 
-1.026934 -0.5773888 0.8295257 
4.532032 1.02809 0.291281 
0.2194078 1.7285 0.8529223 
-2.317783 1.170659 1.199228 
-1.792999 0.02087073 1.103156 
-2.173445 1.113409 1.1619 
5.523151 0.6157098 -0.7788467 
0.4095794 -0.4144014 -1.7855 
5.340341 -0.4857955 0.88153 
0.9515778 -0.4955302 1.738548 
2.64823 0.9711751 0.7131051 
0.5187714 -4.765006 0.7065209 
-0.1503955 -8.361644 0.1118647 
0.2006122 9.243449 0.4064001 
-1.026018 -1.361159 -1.688424 
-1.120006 -1.112188 -1.664359 
4.436292 -0.215813 -1.052586 
-0.3806874 -0.7788679 -1.415444 
0.3469909 0.2048856 -1.7855 
-0.5211704 0.9909725 1.589596 
0.7574041 -3.534989 0.8736006 
0.9896131 -1.638895 1.046616 
-0.3140313 -8.879329 0.007714957 
10.09726 -0.4789548 0.6103643 
9.354723 -0.5798331 0.3897959 
3.521704 0.9259561 -0.6738029 
0.5811129 8.151229 0.7588353 
5.532676 -0.6518973 -0.7461438 
-0.7900718 -1.382962 0.1587393 
-0.7356904 0.608292 1.404317 
0.6786714 -6.564541 0.8075352 
-0.5263622 7.059883 -0.2036045 
0.4043802 -7.063714 0.6105345 
-0.1960271 -1.7285 -0.09247322 
9.52874 -0.3595789 -0.5846578 
-1.010426 -1.37263 1.638363 
0.5539061 -9.09088 0.7360011 
-1.177249 -0.7105151 0.9042655 
-0.1469096 4.780811 0.1479508 
2.040665 -0.5957412 -1.211308 
5.099047 0.2337473 0.9974578 
1.147644 -1.508889 -0.9449253 
-0.004669577 -7.791789 0.2341435 
2.984237 0.9312806 -0.7357071 
-0.1489759 1.720202 -0.1218606 
0.04644357 -0.8790072 -1.7855 
0.04723796 -6.190177 0.2776994 
-0.6545057 -9.52122 -0.2779773 
-0.9109532 1.390176 0.04866209 
9.327062 -0.6686164 0.2120197 
2.000118 -1.264875 -0.5686557 
0.5126879 1.7285 0.3110226 
3.009316 0.8847742 0.7794743 
4.538637 -1.012943 0.3343319 
0.7692297 1.354262 1.535865 
2.053778 -0.4731932 -1.252587 
-0.6682627 0.250582 1.367779 
10.18157 0.3129607 1.02801 
1.460571 1.068809 -0.9818329 
7.376251 -0.8288684 -0.1906538 
8.199026 -0.7633688 0.1981434 
-2.239289 0.6495161 1.218576 
-1.756318 -0.4608807 1.09367 
-0.9924345 -0.5013501 -1.736517 
7.831301 -0.6618521 0.4727858 
0.8962749 -1.278263 1.583346 
0.7465091 0.07592964 1.7855 
0.02829206 0.04456645 1.7855 
-0.3806873 0.8047683 -1.573305 
0.03992489 6.054273 0.2715667 
5.0682 0.6421914 0.8017953 
9.533925 -0.04116534 -0.6842737 
7.327803 0.8139211 0.2585478 
7.212765 0.8304895 -0.2370454 
2.35285 -0.6783518 1.03018 
-0.7481052 -0.7551311 0.6502042 
0.4913261 -0.6581741 -1.7855 
-0.6680917 5.617973 -0.3225302 
-1.501676 0.550795 1.027815 
0.06183141 -7.180256 0.3231019 
7.890706 0.4641414 -0.6651115 
0.685071 -1.7285 -0.1539274 
1.368433 -0.8278787 -1.3202 
0.7912216 -0.5540134 1.924441 
-0.3806873 0.291705 1.360743 
-1.132858 0.5772539 0.6478962 
-0.4780215 1.7285 -0.5355995 
8.166822 0.5407725 0.5762644 
0.8184375 0.4311767 1.7855 
-1.120006 1.015503 1.17739 
-1.120006 -1.253786 -1.5981 
0.6491317 4.276177 0.8159087 
2.97586 0.2046136 -1.168431 
6.161169 -0.8740296 0.3584049 
0.03975664 -3.755485 0.2714226 
0.8141276 -0.732173 0.5293245 
4.624469 -1.057963 0.06737527 
1.694035 -1.374032 -0.2865114 
2.641617 -0.5192848 1.094612 
4.955988 -0.9089579 -0.4964843 
7.351528 -0.6644161 0.5317035 
-0.08107111 -4.632735 0.1700357 
-0.3806873 0.2119158 -1.518698 
-0.7831846 -1.728499 -1.083456 
-0.09121173 -5.279099 0.1615266 
-0.1353375 -1.7285 0.9758192 
-0.05047727 -8.543645 0.195706 
0.4053625 6.669118 0.5782056 
3.603407 -0.7686354 -0.8395645 
7.526406 0.2938435 -0.7859364 
-0.9955832 0.08729383 -0.4923589 
-0.3806874 1.517194 -0.5167587 
-0.5542979 0.139991 -1.384192 
0.4199967 -1.405876 -1.48051 
7.278419 0.8562737 0.04833978 
5.682032 -0.9227219 -0.3286992 
-0.388099 5.919021 -0.05443084 
10.15934 0.5852433 -0.1168268 
-0.3806877 -1.563765 1.054314 
0.01018927 7.520989 0.2466158 
2.738222 -1.123193 0.4369245 
-0.2447119 1.339882 -1.551288 
9.83353 -0.6834487 -0.09175419 
-0.3806875 -1.544682 0.6908578 
0.1118045 1.720202 -0.2244725 
0.2395705 -7.6335 0.4475041 
10.66999 0.1900982 -0.7430281 
2.410756 1.195203 0.2910451 
7.469571 -0.150278 0.8296399 
10.59814 0.5188667 0.9085793 
0.740013 1.7285 0.128883 
1.852311 -1.259853 0.6185978 
0.320979 6.642184 0.5405567 
4.848056 0.9120138 -0.5089085 
0.06132984 -6.676938 0.3226812 
2.724089 -1.203168 0.06906065 
10.02069 0.6351608 0.2680573 
-1.132858 -0.2080575 -0.6139128 
1.362029 1.748143 -0.2658724 
-0.4242192 -0.6298584 1.239645 
-0.3806873 -0.1721198 1.671832 
0.1007456 -6.581524 0.355755 
6.351411 -0.734592 -0.5703217 
0.756116 1.7285 -0.5427217 
-0.08823296 -8.597855 0.1971824 
2.910706 1.093785 0.4745404 
-0.6902155 -0.9465171 0.5673763 
-0.5281079 -8.750542 -0.1719166 
0.609196 -1.728499 -0.9066967 
10.19984 -0.5211284 0.566942 
-0.7745127 0.2512695 -0.1056019 
-1.087995 0.1218664 -0.2432491 
-1.982562 0.204373 1.112534 
1.685599 1.317698 0.4845669 
0.6064688 1.7285 -0.6724001 
2.204002 -1.230082 -0.1965573 
-1.132858 -1.132564 0.2470684 
8.953196 -0.002130575 0.7312385 
-0.2682107 -8.385756 0.0461632 
6.905255 0.7162046 0.519232 
3.17191 -0.6808128 0.9533719 
3.686661 0.3624439 -1.072052 
8.915281 0.7327428 0.02340773 
-2.959434 0.328215 1.36517 
10.49052 0.5368965 -0.1998531 
-0.8662225 -1.52009 -0.9688338 
-1.102381 0.3002157 -0.124463 
1.082468 1.622169 -0.7523819 
2.926941 1.064749 -0.530619 
-1.132858 -0.2542186 -0.5844163 
1.336588 -1.395521 -0.7380359 
-2.599796 0.3586122 1.272162 
7.832405 0.0849658 -0.8115119 
6.588615 0.8546737 0.3139608 
1.150319 -0.5875731 -1.619805 
2.16963 1.236657 0.1769456 
-0.4484934 -1.670352 -1.012539 
10.15934 0.1199461 -0.5833581 
0.9006984 1.714437 -1.04587 
10.12243 -0.5807878 -0.3695462 
-1.192765 -1.153688 0.9082775 
6.183928 0.2882697 -0.8960038 
-0.4065084 -4.44621 -0.1030386 
1.373584 1.311444 -0.8154491 
6.533394 -0.1249044 -0.9075192 
-0.4712525 7.553109 -0.1462029 
-0.215305 -0.243859 1.873478 
0.009875752 1.641834 1.206348 
2.431238 0.9341258 0.7876076 
-0.8870232 -1.291546 -0.9023606 
-0.3835166 0.6397402 -1.73047 
2.536328 -0.7651426 -0.9509233 
4.129504 -0.1151226 -1.092682 
4.953897 0.1794785 -1.019545 
0.7951454 0.9995269 1.7855 
-2.326245 0.8194511 1.201417 
0.2008611 8.805086 0.4066089 
1.437165 0.1719084 -1.448421 
-1.08592 0.2840111 -1.361128 
2.319287 1.234552 0.06250429 
9.919674 0.4999881 0.4736609 
9.932243 -0.2686294 0.7494497 
4.629686 1.028881 -0.2593482 
7.628414 0.829809 -0.04378729 
2.621609 -1.21305 0.0378513 
-1.132858 -1.198948 0.4647481 
-0.3806873 -1.665111 -0.3544485 
8.978517 0.0225525 -0.7279638 
-1.299565 -0.3930472 0.9743568 
-1.132858 -0.6261787 -0.7701792 
2.966372 -0.4781228 -1.087282 
2.343836 -0.8206161 -0.9218099 
-0.3806876 -1.311469 0.9301536 
6.780225 0.5162797 -0.7321807 
7.421029 0.8420306 -0.09926969 
-1.052654 -0.8480093 -1.476578 
1.218817 0.0314365 -1.508372 
0.7584035 1.720201 0.310168 
5.089211 -0.1797094 1.008972 
0.7917886 -6.238592 0.905627 
-2.480355 -0.4527689 1.28092 
-1.775376 0.1771221 1.058952 
-0.5915342 -0.5719548 1.644547 
-1.996181 1.269715 1.116056 
-0.05666044 -1.71814 1.14561 
3.873674 -0.7131742 0.8607743 
3.541624 -1.142615 -0.0391391 
0.1714375 2.387015 0.4085467 
-0.5551528 -6.644596 -0.2277667 
-0.3806873 1.67067 0.8597863 
4.850361 -0.02251142 1.043631 
-0.7177219 -0.3942118 0.220256 
-0.3806874 -1.514364 0.1617588 
-0.3273829 -0.8875324 0.6075222 
9.201176 -0.3804134 0.6007965 
0.04555717 0.1587151 -1.7855 
8.935135 -0.4965398 0.5370803 
-1.132858 -1.030953 -0.5050538 
0.4131048 -7.747071 0.6178551 
0.1293422 -3.983604 0.3465937 
1.030145 -0.01351136 -1.509169 
-0.3806873 0.8463384 -1.714738 
-0.3205765 7.746485 -0.0309296 
10.15934 -0.5862935 -0.1158247 
3.127346 -0.6044519 -1.008484 
6.325414 0.4811956 -0.7973604 
-2.514932 -0.4209581 1.289862 
7.136714 -0.6071769 -0.6225722 
0.7890536 -0.08683645 1.7855 
8.104869 -0.1112262 -0.7879833 
8.589155 -0.756129 -0.04707232 
-0.7123857 6.697284 -0.3596969 
1.900106 0.4317478 -1.355535 
-1.131096 -0.3179643 -0.001027226 
0.776467 -6.618762 0.9227526 
3.959029 -1.098571 0.1712872 
0.373438 0.005598195 1.7855 
10.66999 0.1006985 -0.7880967 
9.103168 -0.4772287 -0.5369626 
3.800045 -0.9398097 -0.6148408 
3.350543 0.7560669 0.8762506 
-0.6109321 1.128286 -1.464123 
-1.312489 -0.02740274 0.9392411 
9.499795 -0.6682015 0.1678323 
1.129764 0.1502648 -1.523532 
6.997767 0.8658482 0.1527749 
-1.132858 0.4095721 -1.088153 
-2.374556 -1.0462 1.21391 
-0.07913542 9.175591 0.2048213 
-0.3806873 1.467178 0.7879366 
1.997689 0.1924846 1.377011 
-2.085405 0.4395658 1.139131 
10.33638 -0.5211285 0.7506099 
7.020124 -0.8398268 0.2552658 
1.765918 0.1887671 -1.393475 
0.3891178 -8.86497 0.5977273 
-0.7903351 -6.25396 -0.3981056 
0.6389952 -6.380415 0.7742429 
-0.7564862 -4.949198 -0.3635476 
-0.4921877 -3.221006 -0.1417742 
7.437587 0.8160839 0.2261156 
0.7742707 -7.369648 0.9209095 
4.61718 0.5521605 -0.906705 
1.106848 -0.233957 -1.645778 
8.497739 0.7472777 0.1622093 
2.290309 1.201035 -0.3088354 
2.333467 -0.9135274 -0.8312601 
8.919549 -0.3418748 -0.6479982 
-1.06852 0.6621562 1.744688 
0.05377087 1.66976 1.176398 
3.040969 0.6442604 -0.9898121 
-0.7269899 -0.9496247 0.3426664 
-1.064221 0.4540352 -0.3000688 
0.490089 -3.783816 0.6492965 
0.5000789 4.994815 0.6908388 
6.44255 -0.08886839 0.917533 
5.586036 -0.5047313 -0.8494853 
1.640321 -1.250373 0.6378204 
-1.132858 -0.1885093 -0.4015158 
-1.132858 -0.7411146 -0.8005655 
-0.9099687 -0.5834454 0.4665417 
-0.3661903 8.4528 -0.06920394 
0.8365589 1.7285 -0.2776501 
2.775825 -1.198936 -0.07326469 
-0.3495508 -6.220744 -0.02208847 
1.465339 -1.56042 -0.2133109 
-1.026934 0.3179056 1.276897 
-0.3806873 -0.1277567 1.547178 
-0.3806874 1.59441 0.7568004 
0.5888098 5.882571 0.7321359 
0.9954978 -0.6748865 -1.712307 
-0.760921 0.567945 -1.603839 
1.052183 -0.7810302 1.678439 
3.791438 -1.110734 0.1756904 
-0.01307058 7.377945 0.2270986 
3.898749 0.9156741 -0.6374071 
5.817195 0.9702959 -0.01343429 
-1.230832 0.4525397 0.9577711 
9.437434 0.5566391 0.4140519 
2.869435 -1.195578 0.01529198 
0.5414221 1.7285 -0.6758322 
-0.7246443 -1.3467 0.356546 
10.20051 0.518867 0.306197 
0.475231 -1.7285 0.4445933 
-0.3111792 -0.1950019 1.817268 
5.805674 0.72545 -0.6439019 
-0.08285315 -1.326001 1.566175 
8.535291 -0.1100231 -0.754737 
10.66999 0.4718391 0.675815 
0.4465102 -1.077402 1.7855 
2.92098 -0.5019741 -1.079381 
5.537987 0.8910308 -0.4324324 
0.05550527 -1.740299 0.2870662 
1.175142 0.06267751 -1.524577 
5.209044 1.012069 0.08559616 
-1.060868 1.349592 -0.3420087 
-0.3806873 -0.4917689 1.576878 
0.1906396 -5.772992 0.4311853 
7.065518 -0.37925 0.7873009 
0.4516712 1.7285 -0.401442 
0.3839906 4.059223 0.5934288 
-0.6740018 -5.044807 -0.2943349 
-0.4567488 -6.356605 -0.1451959 
-0.7681536 1.337271 -1.374226 
-1.129993 1.33138 -1.635699 
-0.02942681 1.509824 -1.41632 
5.403738 0.8583398 0.5165171 
0.5398607 3.301578 0.7242191 
-0.1723266 8.300959 0.1266244 
-0.5750623 1.740623 0.7329674 
-1.132858 -0.7740175 -0.631668 
-0.6009055 -7.020152 -0.2330003 
-0.366562 -1.7285 1.048388 
-1.132858 1.010181 0.194397 
-1.132858 -0.5904037 -0.1779372 
3.016246 -0.2953685 1.147238 
1.049952 1.638674 0.5423486 
-1.132858 0.5029235 -0.2153922 
-2.279524 0.5935633 1.189334 
-0.7278309 0.6025076 -1.615096 
8.117956 0.1626707 -0.7767322 
6.287464 -0.3807894 -0.8527353 
-0.8760844 0.9854071 1.576029 
7.308334 -0.8469789 -0.1261697 
-0.5404689 1.361441 -1.516066 
1.148622 -1.146911 -1.355386 
-0.6670069 -0.09592146 -0.2547503 
1.192745 -0.7082484 -1.576541 
-1.069777 1.379823 0.1900237 
3.184897 -1.133962 0.2961411 
-0.3806877 -1.507228 1.151027 
10.15934 -0.1393964 -0.3118502 
4.996942 -0.3853598 -0.9586918 
8.054579 -0.1304356 -0.7880749 
10.66999 -0.3333159 -0.4857742 
-0.3480737 -6.894051 -0.05400676 
-0.7320462 -0.8054807 1.789368 
1.92022 1.36525 -0.4396555 
0.2337538 6.81046 0.467366 
8.70142 -0.6823956 -0.3097543 
0.08735245 -1.7285 1.109841 
-0.7598213 0.05208231 1.389953 
6.680078 -0.7867346 -0.4468928 
-0.9263581 1.393039 -0.004986563 
0.7356234 -8.308692 0.8553231 
0.993968 -1.365546 1.346946 
5.378659 0.7260195 0.6905248 
-0.3806873 1.183748 -1.545835 
0.4632177 0.2562538 1.7855 
4.951407 -1.022105 0.1675797 
-0.5595458 -6.592762 -0.1982954 
8.106043 -0.7620719 0.2265513 
-1.047268 -1.363429 0.2724448 
9.047231 -0.4192476 0.5889755 
10.36421 0.5188668 0.8584758 
1.329661 -1.187694 -1.047039 
0.1876131 7.693434 0.3954923 
-1.132858 -0.0774938 0.4933133 
-0.6564433 -6.255453 -0.2796019 
-0.1273739 -8.534801 0.131182 
-0.9446038 -1.303844 0.4844856 
-2.468949 0.09221625 1.242271 
2.692149 -1.118192 0.4625937 
-0.7696928 0.6443 1.618474 
1.636609 -0.7091851 -1.214146 
0.3739444 0.9645908 -1.7855 
0.6186795 -9.050456 0.7903524 
0.2278894 -0.5574785 1.876213 
4.328555 -0.3693478 1.017986 
5.688358 0.8697512 -0.4496418 
-0.1515936 -1.7285 0.288566 
-1.132858 0.4750868 -0.3219927 
6.557601 -0.7997866 -0.4415554 
0.8847324 -1.200467 -1.683651 
0.4864142 0.776624 -1.770175 
-0.4399701 0.6512964 -1.569485 
-0.7026801 -0.3277577 -1.352428 
0.3310118 -0.03185505 1.7855 
0.5277246 6.675343 0.7140368 
7.870937 -0.7644281 0.2754189 
8.857167 0.7124947 -0.1943025 
1.220827 0.2775823 -1.577678 
1.118466 0.8532077 -1.61185 
-0.2322874 -8.460546 0.07630637 
-0.2883031 -3.457069 0.0293052 
-1.132858 -0.4564037 0.7605458 
4.469676 0.7055692 0.8069574 
3.313035 -1.157302 0.0817439 
-0.5842709 -1.383005 -0.928962 
-0.8305856 0.3415904 1.76662 
1.817784 0.0006186323 -1.406498 
8.642004 0.7320296 0.1824421 
10.2146 -0.5211282 0.04954227 
-0.3806873 -0.6535516 1.738729 
3.149963 0.9997873 -0.6143617 
-1.026934 -0.7536785 0.9951476 
-0.8965382 -1.438878 -0.945213 
9.330217 0.5642614 0.4173696 
7.009744 -0.8667664 -0.1434742 
-0.007890426 0.9099998 -1.7855 
-1.114989 -0.3660559 -1.344046 
-1.132858 1.248024 -0.07538546 
5.93476 0.1489069 0.9493175 
0.6437607 1.7285 -0.2314005 
-0.9545467 0.9037099 -1.056774 
3.439518 -1.136245 -0.1850822 
0.7499495 -1.7285 0.6602459 
-0.01049352 1.728499 0.7150662 
0.07390505 -1.728499 -0.6829897 
-1.132858 -0.69099 0.06743278 
-0.9863504 -0.8809726 1.623616 
4.323414 -0.973325 0.4750909 
4.347394 1.081115 0.03740819 
0.01503453 -6.860558 0.2506773 
10.64499 -0.5551481 -0.4512832 
-1.026934 0.05705313 1.129417 
-1.761302 -1.237268 1.094959 
-0.3014117 -6.873278 -0.01485273 
0.3380669 -0.9163126 -1.7855 
-0.1827764 1.691028 -1.174687 
3.532193 0.484573 -1.035964 
0.3702358 7.888511 0.548731 
-0.725017 6.540551 -0.3371384 
0.1253719 0.4793079 -1.7855 
-1.132858 -0.2159179 -1.235149 
6.193306 0.4840457 -0.8075793 
-0.9181029 -0.8582423 -1.777609 
8.826545 -0.7382188 -0.04337963 
-0.03650776 1.720202 -0.4595348 
0.1466993 -8.073062 0.3611571 
5.633429 -0.6636431 0.7256179 
0.35887 -3.621969 0.5391905 
2.033761 -1.276928 0.4568744 
-0.3806874 -1.283163 -0.8393676 
4.097342 1.051096 -0.3266925 
-0.003030747 5.491954 0.2686798 
-0.5965485 0.7840807 -1.148293 
8.225173 -0.7706698 0.1512121 
-0.7787833 -0.4059107 0.2270104 
-0.8523604 -0.4884126 -0.2893273 
0.1134836 4.426558 0.3332894 
0.03409044 -8.276162 0.2998241 
0.9616663 -1.683488 -0.4156048 
0.6804507 -0.8182746 0.5498973 
0.5969542 -1.7285 0.2495569 
0.293501 7.47838 0.5175 
0.3483071 1.328135 -1.563887 
6.559355 -0.3863495 0.8268623 
-1.001994 0.6145722 -1.763362 
-1.064221 -0.3585672 -0.4010041 
-0.1504022 4.149819 0.14502 
3.198505 -0.4731095 -1.070005 
-0.1341168 7.70608 0.1255287 
0.2352539 0.3943768 -1.7855 
7.070024 0.8342007 0.2599969 
-0.3576038 6.15034 -0.06199953 
-1.026934 -0.8725802 0.9683423 
4.069584 -1.048979 0.3395151 
4.074107 0.9410437 0.5748236 
8.101028 -0.5364193 0.5867588 
1.300889 -0.05612894 -1.435915 
1.403383 -0.3088593 1.533761 
8.959212 0.7299941 -0.01409174 
-1.019978 -0.628953 -1.770627 
-1.045783 -0.898024 1.661402 
4.860639 -1.043428 -0.01360993 
-0.3806876 -0.9172546 -1.738875 
1.543712 -1.359797 -0.3580751 
0.2507381 4.516903 0.4816169 
-0.1159909 -0.3285714 -1.770175 
0.3662495 6.419252 0.578543 
-0.6293604 -1.390157 0.04896135 
-0.6229872 -0.1445463 1.383893 
0.1443758 1.720202 -0.2929667 
1.33293 0.3918671 1.508293 
-1.132858 0.7199324 -0.9498474 
-2.945934 0.1327563 1.401326 
2.686985 -0.4072104 -1.137408 
7.21851 0.8083489 -0.3009056 
10.15973 -0.4518504 1.289038 
0.7392169 -0.4807253 1.7855 
-2.379363 -0.4541062 1.215153 
-0.4177449 1.390221 -0.04798215 
4.261856 0.8096787 -0.7265154 
-1.132858 0.9627092 -0.2287379 
10.52344 -0.08952463 -0.1998522 
-2.425599 0.7995853 1.227111 
-0.3806874 -1.5435 -0.3708826 
1.427472 1.160649 -0.9280833 
-0.3806873 0.5460908 1.33068 
-0.9082812 1.040235 1.70968 
1.24511 0.5826188 -1.553847 
0.06037826 -1.904896 0.2887268 
-0.6721923 8.889812 -0.3259701 
-1.062607 0.3124579 -0.2578552 
9.390203 -0.6554878 0.2357068 
0.4129463 0.4368627 -1.7855 
-1.132858 -0.2753173 -1.113119 
9.59082 -0.6476607 -0.2111434 
3.621746 0.6015244 -0.9650705 
6.210207 -0.728913 0.5886585 
0.4413602 -5.113063 0.6084079 
5.404521 0.279573 -0.9617597 
2.381566 0.9367961 0.7903129 
5.292892 0.3711805 0.9396585 
5.663053 -0.9695077 0.1536671 
-0.07420068 1.401658 -1.485034 
-1.267525 1.139666 0.9276133 
1.661725 -0.9755083 1.011292 
2.962817 0.09711123 -1.183075 
-1.132858 1.363781 -0.02541197 
3.820055 -0.731757 0.8499191 
0.3746709 6.059138 0.5856093 
0.3286661 -1.179 -1.723831 
4.801617 0.226779 1.021983 
-1.07053 1.192028 1.709859 
-1.305726 0.370466 0.8903292 
8.205844 -0.6942382 -0.3712354 
0.5998021 3.829126 0.7745162 
3.567665 0.8962061 0.6973996 
-1.132858 0.9205405 0.2175977 
-0.3610591 9.313845 -0.03174075 
-0.08060563 0.08451296 1.7855 
-1.014172 -1.444579 -1.531542 
-0.3806873 0.8018478 1.6917 
0.9147204 -1.439344 -1.383627 
4.934065 -0.8185236 0.6295848 
8.99859 0.7238166 -0.06240402 
0.9163791 -1.706477 0.001481891 
-0.1425082 4.652065 0.1184867 
-0.8307729 1.071763 -1.488437 
-1.974758 -0.1286747 1.110516 
-0.3806872 0.3764949 -1.525564 
7.016579 -0.8416232 -0.2508161 
6.678935 -0.7226104 0.5374827 
0.7071909 -6.781086 0.8314658 
-0.6545326 -8.344898 -0.3111567 
4.142571 0.3364085 -1.044153 
0.4161344 -1.728499 -1.040585 
0.5752814 -0.1367653 1.7855 
0.06134042 6.948497 0.322694 
4.9762 0.855487 -0.5795051 
1.541348 -1.384099 0.2359045 
0.4489011 -1.7285 0.979561 
0.05997434 -0.8245405 -1.7855 
1.037762 -1.062551 -1.602816 
1.811286 -0.1098382 1.39934 
-0.5985363 7.169339 -0.2641658 
9.427122 0.6860722 0.1064157 
8.001167 -0.4038551 0.6952561 
-0.451864 -3.803195 -0.1410964 
0.1931779 -0.2181908 -1.7855 
5.389334 -0.0493273 -1.00066 
0.06845738 4.280971 0.328665 
1.393031 0.004224867 -1.435915 
-0.1546034 1.7285 0.7312838 
-1.132858 -0.9062006 0.6778686 
-0.9664885 0.6658125 -1.550409 
-0.3508305 6.555683 -0.05631605 
-1.132858 0.1510988 -0.8933225 
-1.132858 -0.1501095 -1.102432 
0.4428444 1.7285 -0.9724329 
-0.6183186 -1.391143 -0.03391479 
-1.150692 0.4844251 0.8147486 
0.9450257 0.1315841 -1.681444 
-0.7835436 5.838164 -0.4061937 
-2.773217 0.1728731 1.356658 
10.24245 -0.482879 1.256988 
-1.120398 1.110751 0.8387651 
10.66999 0.2326719 0.6659017 
-1.251901 -0.5415392 0.9632193 
5.957714 -0.925483 -0.2551239 
7.646662 0.6215252 0.5456899 
1.29213 0.8873203 -1.382359 
0.06210771 3.603086 0.2901795 
-0.3806873 1.635936 -0.2403361 
1.81351 -1.313357 0.4973561 
7.556121 0.8245562 0.1419843 
-0.5586399 -1.125241 -1.781487 
6.158175 0.09721609 -0.9387312 
-1.132858 -0.5538703 0.7460511 
4.780185 0.2569834 -1.017642 
1.83494 0.4633725 -1.324892 
-0.7210891 4.778637 -0.3670005 
-1.923517 0.3583753 1.136911 
0.4658461 -1.7285 0.6868398 
0.08424096 -6.062509 0.3087487 
-0.9537539 -0.7083944 -1.394383 
-0.2312395 -1.728499 -0.535884 
6.898331 0.2571463 -0.849003 
7.727628 0.3242324 0.7581028 
4.230872 0.01317795 -1.091613 
-0.08595841 0.8324096 -1.7855 
4.465027 0.9952785 0.4038445 
8.346952 0.1868647 0.7541046 
1.181978 -1.571656 -0.06527638 
9.560081 -0.6260239 0.2759301 
-2.681186 0.2102947 1.29321 
8.069259 -0.2807102 0.7466522 
-0.2766204 -0.1331764 -1.7855 
4.355796 0.5436763 -0.9363607 
1.033151 -1.319785 -1.338754 
4.529119 0.4769901 -0.9548883 
1.301886 1.646168 -0.6463537 
-2.116674 -0.830381 1.186865 
-1.211982 -0.9707528 0.9132478 
-1.027525 1.347745 0.3512962 
10.66999 0.4964821 0.4619835 
9.513025 0.6688033 0.1596331 
0.02322066 -3.648288 0.2907047 
-1.755776 -0.9937794 1.09353 
10.46619 0.3095345 1.113557 
-0.7967765 -1.256323 -0.8921155 
8.976604 0.7265755 0.04596238 
-0.01503115 -1.908941 0.2349634 
-0.8766038 0.2489442 0.1103165 
0.5185581 1.579108 -1.29472 
7.546824 -0.4579598 0.7007989 
-1.024132 -1.558684 -0.9800592 
-0.6378356 0.2122951 1.375395 
1.473651 1.391371 -0.3387222 
0.7069652 9.328997 0.831281 
0.7807623 -5.477196 0.9187679 
0.2432355 5.797541 0.4753219 
-0.561731 -6.532738 -0.2001289 
-0.459304 3.31807 -0.1473372 
10.15934 -0.5649294 -0.2208779 
-0.2964813 -5.18915 0.02244243 
-0.7836113 -1.280529 -0.5469532 
-1.250874 -1.17515 0.969976 
9.940453 -0.6707207 0.1557404 
0.3069802 -4.538197 0.528807 
0.002995519 1.358247 -1.551305 
0.2994538 0.7509121 1.7855 
-0.7251496 1.370448 0.2371543 
5.570357 0.9820595 -0.1219264 
3.225292 -0.1799001 1.153942 
0.5195904 -0.7653328 -1.770175 
-0.7447608 -0.02461403 -1.391753 
3.851548 0.1895044 1.103311 
0.2065146 -7.667176 0.4445053 
6.582831 -0.6488996 -0.6412541 
0.04699377 -8.325322 0.277494 
-0.3441039 7.185661 -0.01751417 
-1.034983 0.7188282 -1.648689 
10.26461 -0.5211282 -0.1183277 
-1.074986 -0.4852675 1.524403 
2.355656 -0.2502077 1.207613 
-2.703969 -0.8604968 1.299102 
9.764921 -0.4406852 0.5289067 
-0.7890219 -7.372008 -0.3908488 
-0.4640272 5.807059 -0.1512996 
10.18435 0.004014947 -0.7205179 
2.730394 1.188845 -0.1979927 
3.075179 1.108008 0.401674 
-1.132858 -1.041023 0.02947275 
-0.8078465 -1.156383 -0.7719722 
10.66999 0.412379 0.3930011 
8.500857 0.7610167 0.07552256 
-1.132858 1.199169 -0.07593545 
-0.7379838 -5.02303 -0.3480223 
-1.117003 -0.5565782 -1.790613 
6.309728 0.7713555 -0.5222685 
0.7522136 -6.071361 0.9024019 
0.05971167 -0.4238828 1.7855 
-0.3806874 -1.287899 0.763235 
3.787291 -1.08217 -0.3087488 
-1.010325 0.6201458 1.327994 
6.564087 0.3532143 -0.8428003 
-2.005611 0.2045629 1.158142 
-0.615437 1.381637 -0.1789449 
4.238867 -0.7445062 -0.7962338 
7.489285 0.348384 -0.7664698 
-0.8971307 1.350927 0.3352945 
9.24676 -0.03236423 0.7068089 
4.166473 0.2051348 -1.075701 
0.1261428 -1.472556 -1.408996 
2.295396 0.7048781 1.017729 
0.2360839 3.281116 0.4693201 
6.928871 -0.7134657 0.5174146 
1.175511 -1.574939 0.3290673 
2.484016 -1.213291 0.1714502 
3.570471 -0.8245574 -0.789559 
6.96001 -0.3245808 -0.8211417 
5.558335 0.9091018 0.3922774 
8.376195 -0.2194863 0.7427024 
6.103482 0.2610115 -0.9117389 
9.053153 -0.2452496 0.6794083 
0.06159069 -3.169498 0.2942246 
0.3883247 -1.7285 -0.2655734 
-0.9591662 -0.002411355 -0.324842 
4.685998 1.051785 -0.08986092 
10.66999 0.5126641 0.1987241 
0.6508455 7.262823 0.7841905 
0.3581168 3.58994 0.5385606 
3.56074 -1.096192 0.3212181 
1.805382 -0.1662323 1.395644 
0.3009502 0.1887717 -1.7855 
7.107429 -0.7027897 -0.5153269 
2.592272 1.213727 0.06174747 
9.400909 -0.1604108 -0.6773713 
6.838797 -0.2503862 -0.856095 
-0.7398288 0.8051299 -1.625324 
9.444582 -0.4893692 -0.4916663 
0.01870959 -1.7285 0.1281974 
-1.120006 -1.254619 -1.017805 
-0.3378288 -0.1011244 1.7855 
0.5678574 -5.25614 0.7145515 
-1.390571 0.3148647 0.9594346 
-2.006234 -0.3757678 1.118655 
3.995122 -0.8172545 0.7462682 
-2.270019 0.4449638 1.219098 
7.777923 0.5669993 -0.5927327 
-0.2887574 6.488641 0.02892685 
0.5335885 3.210935 0.6857988 
0.461787 3.467889 0.6587075 
-0.5793675 0.2650389 0.06210876 
0.1710206 0.5305516 1.7855 
-1.051843 -0.5746703 1.31399 
6.317998 0.3776529 0.8516849 
10.61609 0.4650037 1.037307 
6.499882 0.4175411 -0.8165401 
-1.019892 -0.005300298 -1.393019 
-0.1606031 -5.038932 0.1033004 
-0.823589 1.085714 -1.690278 
4.038308 0.9679321 0.5352135 
1.459178 -1.315 0.6179295 
7.965681 0.4114725 0.6934231 
-0.05352953 3.24552 0.1931482 
-1.132858 0.9891974 0.1468992 
-0.2111047 7.412113 0.09408548 
-1.132858 0.5021434 -0.975409 
2.084176 -0.9886369 -0.8612792 
0.4539706 3.127587 0.6339183 
0.6365346 8.099929 0.8053395 
-2.550032 -0.3067526 1.29894 
2.306455 -0.4324142 1.159516 
-0.7349597 -1.393058 0.004695661 
0.6414139 5.201961 0.809433 
0.7838293 6.845399 0.9151183 
1.15057 1.565596 0.8003538 
7.454911 -0.7457406 0.3963482 
1.030354 -0.02315898 1.591532 
4.413311 -0.3249272 1.026235 
-0.8785538 -0.6299034 -1.239623 
-0.3806875 -1.410747 0.6124895 
0.4762675 -4.234217 0.6376987 
8.094622 0.3945317 -0.6922126 
-0.7264008 -0.9916126 -1.591158 
4.306025 -1.080306 -0.09800994 
-0.6429079 3.668521 -0.2682415 
3.774023 -1.121001 0.09777363 
-0.2441097 8.105768 0.06639117 
0.1316857 5.247923 0.3817202 
2.404847 -0.2715805 -1.199534 
7.901577 0.7475089 -0.3157047 
0.01460092 1.45574 -1.427032 
1.894496 -0.8384808 -1.145601 
8.102435 -0.7908942 0.08449203 
6.192713 -0.9274371 -0.1580151 
10.19578 0.5188668 0.6330915 
5.046928 0.3391443 0.9703528 
10.40505 0.5794008 -0.1815957 
7.241843 0.01264936 0.8614098 
0.9119908 -1.662163 -1.148647 
-2.587827 0.4830736 1.308714 
-1.497536 -0.2493551 1.026744 
2.811395 -0.1864227 1.184845 
5.630171 -0.5083046 0.8430476 
-0.5716733 0.4867225 -1.712792 
10.18726 0.518867 0.1682198 
-0.3806873 1.589162 0.4569386 
1.465339 -0.7574915 1.590578 
1.695021 1.000458 0.9878623 
2.844797 0.1834365 1.182841 
-0.06763212 -0.9755161 1.7855 
-0.5290347 7.248729 -0.1726895 
9.340843 -0.1433444 0.6854388 
0.2494521 -7.736219 0.447377 
-1.84067 -1.307614 1.075838 
-0.005647659 0.3897336 -1.776465 
9.247717 -0.6997469 -0.1078346 
-0.3806874 0.4782903 -1.724519 
-1.132858 -0.05740802 -0.349803 
10.50809 -0.4908679 -0.1998523 
10.15934 0.01654026 0.6366513 
-0.3541073 -1.7285 -0.6087224 
9.600595 -0.4941009 -0.4685384 
0.0571264 -6.909205 0.2859966 
0.3384482 1.098109 1.7855 
6.493457 -0.6196531 0.6769136 
-0.5111237 -3.997322 -0.1908212 
7.580077 0.5617491 0.617416 
4.202174 0.2746232 1.059102 
-1.010411 1.356806 0.3057411 
5.564652 0.9686273 0.1965817 
0.7846838 -1.512396 1.366269 
-0.7073514 -0.7984776 1.682819 
0.6741233 8.851049 0.8368804 
10.3577 -0.5211284 0.2711763 
0.1148583 0.2128439 1.7855 
2.469263 1.206853 0.209592 
0.3443416 3.546398 0.5601592 
-1.064221 -0.2544332 -0.2025249 
1.236667 -0.5162913 1.682551 
1.434017 -0.9379588 -1.148415 
-1.603885 1.319818 1.055682 
9.575433 -0.555804 0.3959514 
0.670737 -3.257205 0.8008783 
0.7545659 -1.728499 -0.4931472 
1.636299 1.396585 -0.1518538 
9.391312 -0.4810233 -0.5043918 
-1.132699 -1.157334 0.7220026 
0.6929024 -9.560519 0.8526328 
-0.5512006 -0.5973266 1.727515 
-0.2036815 1.728499 0.1678396 
1.983778 1.364406 -0.3192731 
0.296238 1.7285 -0.5625532 
-1.120006 1.21089 0.8651005 
9.756265 -0.6864453 0.04955668 
0.5956026 -0.7104828 1.837806 
-1.026934 -0.5982131 1.050622 
0.6445214 5.141851 0.8120405 
-0.9750243 1.496271 0.9535412 
0.5112424 -3.779359 0.7002035 
10.66999 0.5075393 0.8835936 
0.7830367 -5.560804 0.9160574 
6.881886 -0.8876979 -0.03150479 
-0.04284987 6.498074 0.2352679 
2.809222 0.5580429 -1.06124 
1.081491 0.1432278 -1.51228 
0.5502608 8.780075 0.7329475 
0.4170235 -1.501311 1.378157 
5.297409 0.2980807 -0.9641081 
-1.132858 0.4725403 0.4862771 
3.465896 0.9074872 -0.7070984 
2.047699 -1.34447 -0.03104077 
-1.773656 0.975643 1.098155 
0.1389915 -2.266705 0.366519 
1.02427 0.08277014 -1.52106 
-0.05385117 4.644326 0.226036 
-0.3806873 0.5214389 1.777154 
-0.5339082 1.277655 -0.5527803 
10.66999 0.1515371 -0.7925346 
-1.120006 -1.044225 -1.538818 
0.4124449 -5.072274 0.6173022 
-0.06720236 4.307774 0.1816757 
-0.9227827 0.5087676 0.2863949 
4.34978 -0.05099085 -1.080042 
4.339957 -0.775393 -0.7565719 
3.782467 1.09883 -0.2390483 
9.555678 0.2751573 0.6267802 
2.160351 -0.6462545 -1.069292 
10.44626 -0.09128946 -0.1998522 
9.63403 0.6761047 -0.0490098 
5.745089 -0.3437189 0.9125428 
0.6795204 -1.728499 -0.5230893 
4.17806 0.8695828 0.6566568 
5.826257 -0.05888006 -0.9666243 
0.8400944 1.7285 -0.6686157 
4.01983 -0.3014681 1.065905 
-0.2832637 -8.91992 0.03353202 
0.1713075 -1.7285 -0.4551011 
1.297087 -1.744341 -0.2276489 
0.4582895 7.615503 0.6298022 
1.622956 0.405249 -1.344623 
-0.8639359 -0.4268412 0.07908577 
1.40034 -0.9674557 -1.170452 
2.569084 0.7537523 -0.9575887 
-0.5363125 -6.728858 -0.1788003 
-0.2069685 7.516029 0.09755629 
0.6622182 6.500216 0.8268903 
1.418805 1.751179 -0.2545424 
-1.132858 0.2297346 -0.3150875 
7.004505 -0.5389841 -0.6957934 
2.820157 -0.6190633 1.026911 
-0.6237887 -1.304245 0.4833036 
0.4653662 -6.585249 0.6617081 
-2.344334 -0.3467809 1.232659 
-1.025418 -1.297104 0.5043421 
6.455954 -0.04570225 -0.9193375 
-1.132858 -0.7142761 -0.7055655 
9.386063 0.597663 -0.3597105 
10.66999 -0.4729955 -0.07790836 
0.9615989 -1.683522 -0.7282234 
0.6494589 -0.2871113 1.7855 
7.636633 -0.7387918 -0.3790886 
0.5759626 -3.348751 0.7213531 
10.44276 0.6581149 -0.1815956 
-0.4239947 0.3768631 -1.340379 
-0.1783505 -1.624535 1.246 
10.15934 -0.4426839 1.22959 
-0.966354 1.320308 -1.439037 
8.155258 -0.7090673 -0.3498917 
3.455201 1.105862 0.3177893 
4.574655 1.039599 -0.2269857 
0.1902879 8.719283 0.3977369 
3.129801 1.024695 -0.5768439 
-0.8583082 0.3213767 -0.08812404 
6.035675 -0.3256437 -0.8952628 
7.631172 -0.8280687 -0.06711715 
-1.132858 -0.4021118 -0.5248495 
-1.120006 -1.447065 -1.212181 
3.577964 -0.4220958 1.060562 
0.4325638 0.6540449 -1.776004 
-1.132858 -0.3734864 -0.8041449 
0.0964248 4.127746 0.3521324 
-0.3806873 1.578435 -0.2612973 
-0.2373545 -1.7285 0.7232068 
0.8626918 1.7285 -0.7500618 
-0.6466138 -0.03533571 -1.391051 
1.117392 1.136695 -1.41199 
-1.617331 0.4823846 1.057726 
-0.6339513 0.7550652 -1.608968 
-0.2085921 6.913608 0.09619368 
2.538578 -0.9308993 -0.7877149 
0.3324097 9.371735 0.5169915 
-0.09004912 -6.205063 0.1956593 
10.66087 0.3429232 1.004441 
1.162219 -0.6868046 -1.608103 
4.014372 -1.106306 -0.04157827 
-0.981223 1.269364 0.8545213 
1.841865 -0.4203372 1.339502 
-1.115595 -1.299515 -1.621467 
-1.06353 0.2934816 1.519466 
4.690524 -0.6107985 0.8607932 
5.856351 0.2241095 -0.9404583 
6.571176 0.6809071 -0.6061059 
-0.8037073 -1.394821 1.439721 
3.547119 1.075709 0.3847957 
0.6405684 -5.245352 0.7755634 
-1.132858 -0.6007086 -0.5240551 
-2.226402 0.09749392 1.175595 
4.653989 0.2752013 -1.023721 
0.1734808 1.7285 0.1050749 
0.3121406 -9.167389 0.5331358 
-0.7433986 -3.97561 -0.3857231 
0.6418406 1.7285 0.8325581 
-0.7069793 0.4582452 1.455631 
2.693435 1.122178 0.4505478 
-2.402844 -0.99573 1.221226 
5.705938 -0.7830814 -0.5876439 
0.9866095 0.7376926 1.717618 
7.212466 0.2956139 -0.8106323 
0.6044881 4.581659 0.7452912 
1.676664 0.9933178 -0.9956734 
1.201535 -1.561729 -0.1169796 
10.18893 0.365712 1.022492 
0.548113 0.8205761 1.7855 
-1.064221 -0.4107293 -0.3523397 
-3.046085 -0.1433206 1.428722 
-1.050291 0.3709916 0.1632449 
-0.864261 1.392552 0.01241511 
-0.9107523 0.8592834 -1.749238 
-1.132858 0.07118064 0.3974467 
7.715811 -0.8144363 0.1304009 
10.22482 0.4769121 1.256989 
4.172626 -1.052529 0.3045992 
-2.559382 -0.6726111 1.301358 
10.58317 -0.2361748 -0.1998522 
1.995683 0.7107158 -1.196719 
5.566555 0.5273252 0.8361769 
5.010691 -0.8517824 -0.5803114 
-0.9088965 0.2974659 -0.527943 
4.588434 -0.4936956 0.9416037 
-0.7183179 -0.6365691 -1.438373 
-1.132858 -0.09954765 -0.5325142 
-0.3806873 1.264455 -0.9287807 
-0.8743051 -0.6095421 0.3509027 
6.235433 -0.6967954 0.626621 
0.3295475 1.7285 0.8570818 
9.147326 -0.5941345 -0.3977793 
-1.132858 -0.6999984 0.1452187 
-0.4971863 1.308706 0.470164 
1.824505 -0.5779079 1.27992 
3.079333 -1.087943 0.4572929 
8.642344 -0.4879835 0.574299 
4.721035 0.6685666 -0.8138975 
6.447563 0.9156144 0.1122931 
-0.3806873 -0.04156174 -1.528195 
-0.166769 -1.7285 0.4805865 
9.551181 -0.6026952 0.324772 
-1.363362 -1.165477 0.9920449 
0.03516206 -1.268955 1.627357 
-0.5573139 1.218354 -0.6730309 
-1.132858 -0.5254209 -0.8104229 
-0.9269457 -0.3035623 -0.4560082 
7.5562 -0.6975411 -0.4615473 
0.7759676 3.720792 0.9223365 
-0.6085731 1.31632 -0.4477348 
7.198291 -0.1104337 0.8583308 
1.172262 -0.05752047 2.304297 
1.022367 0.03292892 -1.524912 
3.031487 0.2054848 -1.16393 
1.362171 -0.5348294 1.45676 
9.442804 -0.6910675 -0.04381007 
6.870007 0.01413712 -0.8897454 
-0.6648505 6.218805 -0.3198103 
0.1183896 1.7285 0.6731511 
0.04893818 -8.818516 0.3122826 
10.15934 0.3345457 0.06523463 
-0.8878412 -1.34063 -0.9166369 
-0.01444881 -1.728499 -0.6221405 
-1.041983 -0.2847734 -1.642676 
8.67802 0.7072338 0.2523266 
10.2742 0.1720207 1.288258 
3.930628 -1.024418 -0.4392467 
6.624726 0.9026701 0.1030967 
1.643707 -0.6459937 -1.246343 
-2.802571 0.5992585 1.324602 
10.18808 0.518867 0.3621964 
3.52783 0.4234852 1.06413 
-1.741867 0.2837749 1.050286 
-1.732968 1.165001 1.087633 
-0.8968222 -0.8085045 -1.144806 
10.09726 -0.4840773 0.3297662 
3.352051 -0.2335271 -1.133413 
-2.717665 0.5294408 1.342292 
0.6502171 -6.861937 0.7836591 
5.996093 -0.4551636 -0.840847 
-0.3806873 0.6626621 1.48475 
0.6396725 1.185751 -1.716593 
3.969095 -0.9235727 0.6091613 
-0.3806872 0.6504741 -1.607287 
3.125765 -1.17385 -0.04774341 
0.2268103 3.589449 0.4615387 
-0.6145644 -0.704114 -1.545409 
-0.1114774 7.770338 0.1445254 
0.2806187 0.2508479 -1.7855 
1.173624 0.0181397 -2.500556 
-2.213618 -0.9017212 1.172289 
0.8245831 -1.7285 0.5128709 
9.562306 -0.279924 -0.6238655 
-1.902703 -0.5225814 1.131528 
0.3189022 1.242463 -1.655769 
-0.3729157 -5.725328 -0.07485127 
4.179342 0.1034886 1.089635 
10.15934 0.2266105 -0.5710681 
5.59383 -0.09277289 -0.9821756 
3.310006 0.5862022 1.003916 
-0.9911852 0.5670431 -1.270622 
4.82529 0.1749697 1.030447 
-0.3806873 1.013124 -1.739598 
-1.753824 -0.328155 1.053378 
-0.3806873 1.212643 -1.009499 
10.66999 -0.3274341 0.07898593 
-2.921675 -0.2080041 1.395053 
0.3229288 2.95436 0.5090343 
-0.6362553 -4.336863 -0.2626616 
1.747593 -1.40435 -0.0333814 
1.650738 -1.174463 -0.7685729 
7.300853 0.6211888 0.5877394 
-0.80721 -1.364548 0.2668186 
7.487349 0.4865857 0.6871299 
1.282223 -0.764356 1.462467 
2.101848 1.24997 0.347889 
10.31319 -0.5211284 0.2330225 
0.9498239 1.651179 -1.104345 
-0.3228962 7.952989 0.0002813041 
-0.2587722 -8.980886 0.05408287 
-1.126482 1.277091 0.5204916 
-1.064221 -0.3594137 0.1526931 
2.824064 -0.2410703 -1.172989 
-1.017012 -0.6757631 1.532876 
2.870106 -1.187651 0.1354555 
0.4650007 5.561174 0.6614049 
2.37391 1.191657 0.3217188 
2.705413 1.089878 -0.5178785 
0.5966632 3.335708 0.7387248 
2.121331 1.220831 0.3798199 
0.238813 -0.37528 1.7855 
-0.08122465 -3.415542 0.2030647 
-1.340141 -0.1844137 0.9860393 
10.18435 -0.07575963 -0.7657735 
-0.3806874 1.473223 0.1960903 
-0.609859 -1.002014 1.529561 
1.331418 -0.4218112 1.717268 
-0.3806875 -1.727181 0.9339511 
-0.4486074 -7.949825 -0.1383647 
2.875804 0.8505372 0.8396696 
2.537072 0.7450976 0.9684279 
5.721133 0.9776524 -0.01326676 
10.38669 -0.5211284 0.5670227 
1.36614 1.711014 -0.4044023 
4.437438 -0.04170476 1.073948 
0.6750396 7.784667 0.837649 
0.01944496 -0.4575673 1.7855 
-0.2133327 1.721747 1.141742 
0.680377 0.2999694 -1.785191 
10.48153 0.2511126 -0.1998521 
4.553373 0.7609957 -0.748292 
-2.401053 0.5271231 1.260411 
-1.132858 -0.2422362 -0.8294481 
8.532697 -0.003474513 -0.7633044 
-0.4620292 -4.335637 -0.1164686 
0.7168682 -4.163465 0.8395867 
-1.047321 0.594643 -1.506212 
0.532864 1.082095 1.7855 
0.1786015 7.827243 0.3879306 
1.192952 -0.160776 1.545671 
3.60089 1.120836 -0.1994336 
6.630017 0.6233333 -0.6598275 
-1.120006 1.455101 0.9745702 
-1.120006 1.24829 0.8968828 
-0.1848363 8.325708 0.08297014 
1.005809 -0.3128824 1.706146 
-0.3806874 -1.504083 0.005557431 
0.6575671 1.242229 -1.65602 
-0.9599769 0.4743313 1.654621 
0.4206999 0.3822614 1.7855 
-0.07315375 0.4551062 1.7855 
-0.536127 -0.6126434 1.64551 
-0.5886715 -1.358624 -0.2966016 
-0.2552314 -6.870203 0.05705479 
5.017381 -0.9684887 0.3516468 
9.210217 0.6967585 0.1375262 
0.4099576 -7.791545 0.5820571 
0.4623399 -0.847118 1.7855 
1.612479 1.197346 0.7343273 
-2.48264 0.1154702 1.197486 
-0.9435546 -0.6944171 -1.596649 
1.457475 -1.727498 -0.3232079 
-0.8772566 0.5070906 1.58973 
1.799954 1.376016 -0.2765439 
-0.09863636 -6.482965 0.1552962 
7.671145 0.250864 0.7888633 
8.003573 -0.4284899 -0.6785749 
-0.8509899 0.6671944 1.632954 
0.1806854 5.160562 0.3896786 
0.004387692 9.272017 0.2749056 
-0.9255186 0.4982027 -1.58219 
3.392943 1.149228 -0.1117113 
-1.120006 -1.250595 -1.540112 
8.310291 0.2719508 -0.7302034 
-1.132858 1.297151 -0.315919 
2.036284 1.310454 0.3511245 
-0.6073241 -6.467579 -0.2383859 
2.766386 -0.5723128 1.057847 
4.946741 -0.5093237 -0.9034132 
3.491842 1.137255 -0.1595398 
6.873477 -0.8642905 0.2092173 
-1.132858 0.2988227 -0.8236191 
0.03281641 4.07217 0.2987586 
0.3862424 -7.139701 0.5621579 
6.169931 0.189162 0.9230143 
-0.3806873 0.4143865 -1.596106 
-3.010919 -0.3164541 1.378485 
6.261865 -0.93507 -0.03209421 
0.7655218 7.273523 0.9135725 
5.628154 -0.6530835 -0.7354137 
0.6628806 1.708927 -1.155491 
1.308074 -0.2717797 1.432853 
1.889636 -0.03422882 1.415686 
-2.108981 -1.052696 1.145227 
0.1165703 4.577504 0.3690367 
3.182448 -0.3122348 1.129725 
5.488563 -0.1447203 -0.9848628 
10.15934 0.1812929 0.1851868 
4.99692 -1.031957 0.0296329 
-0.9955832 -0.4471596 -0.1197715 
3.241816 0.92931 -0.7072237 
8.646026 0.2205713 -0.7205913 
-0.5115908 1.270305 -1.403032 
0.7918661 1.7285 0.8307034 
0.3953547 1.7285 -0.04130591 
3.580962 0.06403027 1.137977 
0.7115817 -3.655988 0.8683082 
1.290352 -0.3814 1.731173 
0.880362 1.72476 0.6749887 
-0.9947025 -1.314602 0.4527927 
0.5242569 0.2696622 1.7855 
3.135696 -0.5553211 1.034807 
3.497589 1.134819 0.1695354 
7.469977 0.2874081 -0.7926679 
-0.7820164 -0.572643 1.267861 
0.6614163 -0.2190193 1.7855 
-0.1289836 -1.728499 -0.8720791 
2.602939 0.6155934 -1.049164 
8.160178 0.6491956 0.4509512 
0.5950558 -4.581326 0.7373738 
2.758744 -0.1063848 1.198072 
0.3752621 -4.359543 0.552945 
9.53226 0.6862098 -0.01356522 
-0.7856142 1.363515 0.2720107 
-0.3806873 -0.7067784 1.500452 
-0.4558173 6.52393 -0.1444105 
-1.026934 0.1799142 0.9157138 
3.773501 -0.5943974 0.9559059 
9.392775 0.1544471 -0.6791903 
-0.2085708 0.2870727 -1.770175 
4.667466 -0.01117958 1.058359 
-1.084844 -0.6778455 1.733121 
3.077467 -0.8403196 -0.8286384 
4.18818 0.7701781 0.7788652 
8.694452 -0.2937668 0.690873 
-1.132858 0.3937778 -0.08223098 
3.749399 -0.6884245 0.8950917 
4.165023 0.6332657 -0.894006 
8.945293 0.7277685 -0.06428829 
7.494535 -0.8234206 0.1717785 
6.892494 0.4786426 0.7470261 
4.249827 0.5482908 0.9430018 
1.726838 -0.09371617 1.400397 
2.031573 1.35066 -0.1559038 
-0.674427 -7.359844 -0.32785 
0.09185006 1.7285 0.6205754 
-0.8668587 -0.3311848 1.788178 
-1.132858 -1.348388 0.1440192 
3.180099 -0.3912704 1.103086 
7.162235 0.77916 0.3790723 
3.019737 -0.2479859 1.156391 
1.655511 -1.404739 0.02744358 
3.521125 -0.9297649 -0.6681811 
0.7093226 1.7285 -0.8337446 
0.3029803 -3.630874 0.5254509 
9.402934 -0.4325779 0.5456977 
6.289634 -0.8140932 -0.4587733 
-1.119937 -0.4144016 -0.411674 
-0.6833016 -0.5041847 -1.297159 
0.5584915 4.093957 0.7066952 
2.11716 0.1282481 1.276186 
-0.3806874 1.53886 0.195745 
0.04615974 -7.694893 0.2767944 
-0.1670872 -1.7285 1.031469 
-0.9707738 1.667482 1.028256 
1.601461 1.293254 -0.5508677 
0.2932844 -0.7601434 0.5866352 
-1.070692 -0.2727051 1.790178 
-0.08061981 0.4306587 -1.77214 
5.75444 -0.09252912 0.9699104 
0.6906889 1.7285 0.9854875 
10.49052 0.007276915 -0.1998522 
0.18321 1.118238 -1.7855 
-0.573886 -0.8848813 -1.330985 
10.03182 -0.3781 0.5750732 
-2.841068 0.7322218 1.334558 
-0.3806874 1.488301 0.6194043 
4.448286 0.5939621 -0.8942732 
-1.132858 -0.9137938 -0.3049544 
-0.8293188 -1.385939 0.1133144 
-0.02942681 1.556073 -1.438693 
-1.132858 0.5324058 -0.7791968 
-0.5416406 0.7570543 1.166184 
2.445544 -0.0638349 -1.22481 
10.461 -0.3596763 1.022492 
3.542019 1.134593 0.1532974 
1.052834 -0.06267605 -1.505165 
0.5100305 1.7285 -0.5986399 
6.316678 -0.3603092 0.8603502 
4.443563 0.7963665 0.7158003 
-0.7922002 8.212193 -0.3958762 
7.545269 -0.8281089 -0.128367 
0.4915847 -1.7285 -0.3332572 
-0.5297978 -0.649424 -1.568049 
-0.9642188 1.230633 0.6481318 
0.5396838 -1.728499 -0.6048421 
-0.4673408 9.434364 -0.1540791 
0.781627 4.134841 0.9177417 
0.6289868 5.864077 0.7658484 
-1.120006 1.22463 1.549483 
-2.532093 -0.688165 1.254652 
2.78247 0.324115 -1.157921 
-0.2092641 -1.7285 0.0510978 
10.35001 0.4513243 1.232618 
1.073384 -1.14713 1.465121 
2.237355 -0.08995655 -1.239018 
-0.7935085 1.346002 1.544723 
-0.09751625 -7.964892 0.189393 
